ply
format ascii 1.0
element vertex 711
property float x
property float y
property float z
property uchar red
property uchar green
property uchar blue
end_header
-0.9066069162586841 -1.524597060274382 7.141615953803179 56 26 34
-0.6870063421563215 -0.6361514186421556 7.111218963307641 62 30 35
0.9918917398185406 -0.07716383818238995 5.854089784041393 117 94 114
1.073981252494716 -1.3771780358106602 5.923706096820946 57 41 52
1.4983565455085501 -0.7241269633622717 5.447276171921843 68 52 63
-0.9762076852992992 -0.6921384319017733 7.239170635268871 60 29 34
-0.8362949926256719 1.252267932607244 5.369648623227168 110 67 86
2.2235957395478763 1.2915365232903442 5.1553902485394705 60 73 107
-0.35189725752466783 -0.19270961362779404 6.7060283962656 77 41 45
-0.9615870432705477 0.5709389380782061 7.20982983326653 91 44 54
0.7790619266446391 1.5073072358087327 5.712928687309613 64 55 72
0.011129671139382014 -0.2617797661473991 6.484834063058009 60 28 33
1.4829216682275308 -0.5510111546580363 5.408783055203749 71 53 69
0.7401319844259665 -0.23670229991991357 6.1031853224690105 75 46 66
-2.942363470594512 1.7299192662090628 9.43475056425429 27 28 58
-0.4834794284056687 -1.042113771607827 6.709676449117524 146 94 106
-0.3281649544016271 -0.7340462653112434 6.705016796182109 40 18 21
1.4979785428011807 -1.5973880092317203 5.48981595461079 74 61 81
0.021331167440232 -0.8480328110478351 6.4097950044872425 66 29 36
-0.0891739800349588 0.44918909755689784 6.643600235763248 82 31 36
0.9446022559932127 0.9204467186500681 5.816777562337662 81 59 72
-0.6094766617431766 0.23789526686513754 6.941391326895046 186 171 140
2.312280833700424 -1.7712616535811894 5.501595942409488 121 143 180
2.244919799578131 1.1584072841568671 5.145582809693335 88 114 139
-0.538401988426568 0.22623528411769003 6.958266836937341 107 84 68
-0.971161300135066 -0.9914044651792012 7.1401039490361615 59 29 41
-0.60834269610033 0.36592700736034733 6.734136707074849 143 126 118
-0.9630985332840308 -0.9749628929338843 7.1985005133606865 124 72 84
-0.2783466114392418 -1.7318333235951793 6.833307137483005 133 80 90
1.4784076857559474 -0.08088933735144796 5.34764303431771 68 57 71
0.1049405816430079 0.19627489162018055 6.378851765046189 44 15 20
2.2730433297320536 -1.7019559408239942 5.436466465632473 85 96 128
-0.5754942381486661 0.2326007302668053 6.903078544698902 191 181 154
0.18484025995299802 -1.4945564616248033 6.691025499309919 62 30 33
-2.2041641439668913 0.9889858950717102 8.792291422978824 51 48 75
-2.1736913667802362 1.0184873488720563 8.952300330041563 152 167 232
-0.7247581979428755 0.3474281448501936 6.7606446910012075 167 161 147
-3.0014687800142936 0.7069448730625009 9.695515653089814 43 49 73
1.4973606703836464 0.161020667058459 5.300558567033854 79 63 74
-0.5596541396892627 0.43497718920831097 6.812738090656783 95 78 94
-0.578035274085156 -0.09969939521991864 6.9873904289616515 170 156 130
1.451918278256548 -0.09234368527907347 5.367285155147143 133 119 136
-0.7769854242098745 0.2460480463080774 6.813771465660015 171 163 174
-2.9742485038054065 0.9329014207975713 9.49764315698238 53 54 82
-0.6585658555444546 0.35876732965681984 6.765573793935662 145 132 126
-0.8330372130494396 0.3472760469841474 6.835231958382563 43 32 28
1.7026171799505776 1.5785794949994476 5.043943749448385 149 174 240
1.6375549950738262 1.4450059659245231 4.827935166786286 137 170 239
1.563257356574952 1.4749188111454723 4.932185885193525 18 24 86
-0.5956364514020225 -0.11296515692756598 7.02895216443168 146 130 114
2.2438193874352317 1.1271181482758168 5.099476696122595 30 40 76
1.6269646632829557 1.463333205615566 4.870518445370705 16 23 42
2.3121593481916705 -1.7482577402295276 5.500934199295933 68 73 105
1.334604471321144 -1.152740963933117 5.5726238074287355 54 42 52
-0.6105433573824094 -0.2850887624044807 6.96198908389214 48 34 33
-2.1864287872608514 0.9752995624790582 8.808097942367995 144 149 204
0.17097488967617103 -1.4542854680541248 6.75619138305484 48 23 26
-0.7740184474511593 0.7899292826398868 6.723723888306281 121 137 188
-0.6787021743934559 -0.2552299363497764 6.99443507310708 47 21 20
-2.122142404344981 0.8449576783790179 8.844725039480293 159 176 245
-2.957816600491261 0.9135688755276897 9.518386158496737 26 31 53
-0.6913961106362886 0.3511725303014197 6.771177754458256 131 119 121
-0.5425790733237746 0.34688068146605155 6.704392041130704 194 185 176
1.5338725727658686 1.4704495783615787 4.943218187612889 159 184 250
-2.19152118983468 0.8398547996662009 8.900446845040948 155 164 223
-2.9708632360556835 1.9402218171954297 9.452442027170122 118 105 123
-0.5618543866510101 0.3572652608221766 6.805734533548886 107 89 85
1.6633227960830292 1.4332891686423581 4.826246589351886 21 17 40
1.6762231731867616 1.4543038697476753 4.811211947708701 15 19 31
-0.7069985674014942 0.32006468882327754 6.810175834707712 213 211 196
2.214392753161667 -1.632388381003529 5.456534629194057 43 44 48
2.0929617910301936 1.4158444644034225 4.974860582151881 122 124 137
-2.197996130009656 1.0143182202553376 8.834297482989266 40 49 78
-2.1356071226762707 0.7949788112058638 8.701490738211474 127 138 200
-0.5829949900378466 -1.0270387780580403 6.6971653081515425 42 26 29
-2.201716033509815 0.8122755324107646 8.88536531819238 36 41 71
-0.7927732482300632 0.31234430200244423 6.783295294559774 189 178 176
-0.658133985219423 0.37485841739882886 6.766946622732145 104 89 86
-0.5388462213008529 0.3735734278685694 6.752100210598257 139 121 111
2.216346732066799 -1.067695855119836 5.39630527929646 45 42 61
-2.191676698905423 0.9088780535848232 8.915037229296912 22 38 74
-2.107615600904078 0.7860247400950642 8.726418520507536 47 47 73
-3.68427142578453 -2.084746508283945 10.18337135039171 100 113 158
-0.6652685722172231 0.048064937596393194 6.92595301351452 93 78 83
-0.7024958429016097 0.04839272203840279 6.898728076836835 189 175 149
-0.6930729361566237 0.3852961901945608 6.71322003685224 158 149 134
-1.5250884186932168 0.9132642940724692 7.461828584780161 67 39 51
-0.5660416896490604 0.20483033462940486 6.950698061804764 180 166 137
-0.7222127995119336 0.2008079211603289 6.920302070294154 131 117 117
-1.8168233119571902 1.6309301452608826 5.554504564001593 54 33 108
0.8621251942561553 -1.1046305059211494 6.077444326001582 68 41 50
2.2061181685800286 -0.7868759547494759 5.359246239785034 47 41 53
0.33024681065871697 -0.14462197029550017 5.839519564247693 159 108 123
-2.158311253491317 0.9435541512199559 8.830242124198493 156 171 236
2.3309758077890974 -1.4337844756948424 5.484566025561692 79 78 118
-0.7793316932892979 0.3978386236435138 6.8570679798625545 65 43 29
-0.7170604512864405 0.39122327407086993 6.751695632363186 71 49 38
-0.6877032786126042 -0.3356303611844843 6.999751228005402 67 35 40
-3.6785551466008335 -2.1529590656169115 10.153683618882624 60 43 62
-3.6224490988743305 -2.1345794336221697 10.08011865256558 104 106 154
-0.5465421316365906 0.41637331578579967 6.620314556383838 41 25 36
1.5286832790100946 1.4603374835398981 4.974549408201773 10 16 28
-0.6198597626791327 -0.0018779839516476285 6.9843241246099526 46 28 18
-0.6449279363568892 0.19547628865528713 6.928214625152965 122 100 77
0.9884825229141042 0.7421083530678154 5.757190112573957 65 48 66
-0.30234752234839146 -1.7249730367203886 6.70343974936869 83 34 37
-0.5839992795856328 0.17886524992743258 6.943993617185174 153 137 111
-1.6884960498556802 0.05343036077778813 7.949880170623287 138 87 102
-1.6851885983142305 1.6493043494875983 5.616829661245009 50 43 76
-3.082825992735867 1.8401678543798161 9.41388972143036 92 87 110
-0.010599275599201263 -1.0738318008358694 6.3410752362775105 90 33 40
-1.6897940738331607 1.599958665174386 5.463650329580793 188 205 255
-1.8990321420872758 1.6416223489802553 5.618079801766237 168 171 226
-0.5517477447389109 0.39499197619362514 6.690686855965698 186 177 170
2.2935276267417772 -1.4119741898532925 5.4639057114858085 107 114 158
-0.5606312074130374 0.006605371178949583 6.952763844446591 107 89 75
-1.916792251374507 1.6301727658811964 5.604944377814354 55 47 71
-0.6057338857124458 0.014313463253302496 6.924775498490358 158 139 125
2.237141991045213 -1.5997636663822765 5.493292978942186 27 26 44
2.2358481815384286 1.354924107069805 5.114055666227134 36 36 38
1.5930690726572392 1.506307060131864 4.8821164558379015 14 18 53
-1.3919882008335778 -0.868742912041129 7.689156964380655 67 28 29
-0.014800458060585497 -1.0408440947032793 6.307906876134043 147 96 111
-0.48611075484177113 -0.44076682629240266 6.812308946294659 49 23 26
-0.6296970550576246 0.33699367143767817 6.833381941236298 164 150 139
-0.935151324558333 0.5635911993339933 7.063721218750794 126 76 87
0.3088475165098675 -0.1830248468295106 5.918437369610152 90 40 43
-2.9834840768391233 1.1773343624526884 9.728878989065299 62 68 104
-0.9698833002411994 -0.9531115580978532 7.199712659439033 55 23 34
1.3972690146655897 1.3262045517595507 5.279340923506689 119 95 108
-0.814949004525068 0.7794151289986425 6.7711547663947185 73 66 110
-0.8242865520229962 0.7931781669063791 6.754363170282978 130 132 173
-0.3137866789541208 0.8683135946704518 6.285444407178755 59 26 35
0.3603069105637101 0.39816358626963244 5.9877861599789854 62 41 56
-0.3523231623725521 -0.7762497308905953 6.664522782674038 46 19 24
-2.9919097108863433 1.9495166955679633 9.306721907459139 29 28 34
-0.40930653562755637 -0.7549432883482933 6.599189395739572 72 35 43
-0.756705832798045 -0.5575793729378616 7.196483804008295 54 25 30
2.335165639177844 -1.5717474740036572 5.493071942130423 150 165 204
2.2942761803413423 -1.6420650352791535 5.469908777706587 101 112 142
2.228836199505178 1.2758683193066205 5.153829418865096 50 49 83
1.024601721182361 0.7189394952566873 5.749636894840026 72 56 69
-1.3330040350447048 -1.3212092464811735 7.587070164607055 53 29 43
-0.5197128778411623 -1.0323136293842694 6.760501557143468 64 31 38
-0.35766535994068227 0.5078762686881969 6.68087633176069 129 75 88
-2.949811395752928 -1.143424499155457 9.75725183310762 37 43 93
0.8684480016374808 -1.1494157387911301 6.077708653685957 96 73 81
0.07919931800737012 0.11024521471255189 6.427427689291621 88 41 57
-0.6127535619791552 -0.6022226138892166 6.919760491222828 53 24 29
1.5489539178883756 1.3045563973502456 5.154920441344583 105 94 124
-0.4029923133504665 -1.051839058123456 6.563941893824023 71 34 51
0.3227638473380082 0.6830795374189346 5.673816942655918 89 48 56
1.4805814819356304 -1.6526601155713647 5.5341466487288935 119 103 129
0.8392909190864754 1.4531399464693695 9.99173454931191 98 52 63
2.130486944704215 1.32262905833051 5.045088112094958 21 19 33
1.735630845432015 1.416899216656369 4.749572689620299 66 60 74
1.5293485968630494 0.1646259171410964 5.3018029216517295 126 112 129
-1.3882441949764628 -0.9043007714003367 7.605202802123356 102 56 67
-1.6703601204938745 0.9263536170495896 7.576561435463616 62 47 52
-0.5603445020046588 -0.5736871029113046 6.89260610844063 55 23 26
-0.37727401621862633 0.4209897289942507 6.8526123357399475 96 48 60
1.4720564561390845 0.18442069866704033 5.277490670072082 141 131 155
1.0091547330859774 -0.1257172449734893 5.861600918217219 72 55 73
1.242143283107167 -1.4716996129619169 5.703335236587277 75 60 81
2.1027455500099945 -1.2343334698716721 5.461634407983535 73 71 85
1.25549166540694 0.8349847364353995 5.452401929480788 78 57 74
-0.5744808997980062 -0.5895798967206847 6.9476682804123895 102 61 69
-0.7102886734135584 -0.5954792697495823 7.069730785976323 51 22 26
-0.38021391306766605 0.5086989948603383 6.69148912595623 70 20 29
-0.24078239356194875 0.878376568324366 6.244065815554399 65 33 48
-0.8321264957973672 0.4755326111024113 7.09191514895062 66 34 39
-0.9168937013590414 0.5793985342995195 7.192312626584756 56 23 32
-1.5517798712544875 0.874687735363613 7.441097527859624 79 43 53
-0.3445467761890163 -0.7235575406743068 6.657821498960482 28 14 14
-0.39472965946739036 -0.1779069808825132 6.699091795384362 109 76 93
-0.6830703651651461 -0.6067639767907524 7.078095022578602 106 63 70
1.2670898206737742 -1.1637931358955176 5.670200923565117 73 57 67
-0.8597974826569396 -0.37144406505250294 7.178181485463608 125 69 80
-0.3944674984743709 0.42079916308721765 6.8491032352728665 126 75 82
-0.4404942335240406 0.7824298692821339 6.404160419353409 92 51 69
-0.40372569624093857 -1.0749267239588935 6.561846542989519 122 77 97
-0.7260646536742225 -0.179885527885019 7.050577538330031 141 119 106
-1.6463948126893175 0.8944559366538299 7.6086057659962965 68 40 52
-0.7414053770874436 -0.29442839557397515 7.173979140370176 51 25 26
-0.6580563932048603 -0.611042410147829 7.035750637005747 52 22 24
-0.7754670950546869 -0.5162362830366211 7.124063556394036 109 62 72
-0.731536641845409 -0.575041563461617 7.148857520845808 107 62 67
-0.3937122988968297 0.23588208905991334 6.713870085678256 83 38 45
-0.9701427883884696 -0.11468510641765312 7.281040301273101 103 69 83
-0.5891305436111253 0.32799608673200653 6.797114040843344 168 157 155
0.9167562561652619 0.8011700318246449 5.818693718159751 113 105 129
-0.9867636960358394 -0.8273272727958699 7.204849313338715 120 71 90
1.4123202750349155 1.3283930732377875 5.23270604374055 86 68 82
0.7418842784553735 -0.23725175543729352 6.116766510063111 83 54 74
0.924018974694477 0.7749469592476539 5.816012414887256 70 52 64
-0.5418824974280886 -1.5336841785800708 6.611394510686235 50 25 31
0.9715567837671405 -0.07234300854628373 5.821041817692905 125 106 126
0.02179927051101438 -0.8506022641543787 6.411861500372655 71 35 39
-0.8967090842853773 0.6009078598297087 5.647600295174549 69 26 35
-0.6216783373594827 0.3592666485519282 5.518989979678261 86 59 42
2.102085752848961 -1.05062228544793 5.043717951084177 55 70 109
-0.5883264054213838 0.36746602485167695 5.585922693859037 146 134 110
0.09316615772566253 0.9272098273328779 4.816378494272271 96 46 57
-3.3358810310587947 0.9738622642572076 7.278803768723976 66 65 109
1.6916465591206118 1.44642644964625 4.252300488871474 43 39 72
-2.2372011528455986 -0.24160220456937131 6.895159455675144 61 49 73
-3.3328457766757777 -0.8518216037174161 7.562035660340985 123 134 180
1.468623574401133 0.1832680357449053 4.685399656197513 74 51 69
-0.7769957726706413 0.23015155775291035 5.608282516338011 122 92 82
-1.5017011104899438 -0.8915638616190241 6.546138548885977 91 67 89
0.6036333870116044 -1.0594805235988436 5.359913777057143 115 100 119
-0.5724762421327525 0.5079162209016254 5.383394709923897 101 83 81
-1.5030507793182695 -0.8962318323539714 6.562390570237295 85 61 83
-3.352591855298926 1.1467436452486934 7.2724890367853545 29 29 67
-0.2574938368708036 -1.245971955153816 5.43838885211821 143 87 100
-0.3020623939406979 -0.6758808761079439 5.32616365145139 73 29 46
-3.4549258993796523 0.7874904800789438 7.3117913952595845 90 123 166
-3.425855626987594 0.7836507113850165 7.274212070888146 28 56 95
-0.6961217275334851 0.8765995139429663 5.269705468056906 129 131 169
-0.02359546243515318 0.2023637837580557 5.31918978540036 63 28 35
-0.47448786567141293 1.2838938102265929 4.076256062320235 118 66 89
1.5479399171838337 1.4923786606527911 4.318992707260352 117 128 174
-0.6727201345892346 -0.05795038549516974 5.573076870654214 127 107 98
0.40720263101533505 -1.5367246594269086 5.52216732762235 91 66 96
0.41240307745625643 -1.5425741868091396 5.541938625875298 81 56 85
-1.8036618386815253 0.2545592431238858 6.102649495505186 134 93 111
-0.663145442531696 -0.06663771911034755 5.577321548018715 131 105 90
-0.6979744021596596 0.45284400763053784 5.365875178284664 100 99 107
-2.9958554310723744 1.7700103538218481 6.983038009257208 74 86 112
-0.3093668270344519 -0.6794400459824659 5.299650328927699 74 37 54
-0.6085368838507781 0.3855320918931023 5.566785327412423 145 127 103
-0.5897071223299575 0.13770480298033722 5.650593495631445 201 187 158
-2.38297681207341 0.9236432445335706 6.775967265486599 144 168 228
-0.37271682203080253 -1.4090940342182372 5.50101187449811 95 48 64
-3.0225368773234633 1.8972654648187928 6.876735482235885 117 130 147
-0.13903928327470227 -1.405579503065987 5.837066611798164 65 39 64
-2.713776953088052 -1.3546490403710565 7.301586441540055 69 55 80
-2.9410421936014397 -1.389959779877551 7.438746776860807 70 70 106
-0.6824434146642686 0.4306979494704233 5.355208557824921 103 93 91
-0.4249547774571339 -1.2767999595646833 5.585413509780442 89 41 53
-0.6961748697265517 0.4318729715925217 5.3720350312494975 146 138 135
-3.371326796956884 1.1357555257309033 7.267838955107523 38 55 81
-3.342329449054615 1.1362979717912216 7.268934039676752 47 42 83
-3.009507521815636 1.5058559938575897 7.0451728281742 103 119 155
-1.260454427239947 0.2906095692022992 6.009196609761626 72 31 37
-2.476071801466992 1.0855008074415897 6.813142302815482 46 37 66
-3.4844020035926677 1.7564124656418056 7.184883356354907 42 65 97
-0.512266322534317 1.2843285354128904 4.066670051316636 86 41 62
1.2693050275631237 -1.2905117856271802 5.022868141709773 61 42 64
-0.40470706020497754 0.5607520535153864 5.35990140351248 66 21 28
-0.7099992946906724 0.1678584432759374 5.513351894612465 200 192 173
-0.8969388558860107 0.28431656821323426 5.6828102167679 62 22 31
0.4655656129187628 0.7906013124800559 4.624965935090372 67 31 43
-0.6673419132862259 0.2545458954534487 5.477258483700113 214 204 177
-0.7247095939657049 0.48325810467299896 5.3320393992130475 112 100 84
-0.9347690076650774 -0.646112016262837 5.682239187476883 73 39 53
0.857984134022445 -1.4366760982853202 5.260088315604626 83 63 88
-0.6794360221359284 0.253329823583329 5.495848142853077 175 159 134
-0.732073599944649 0.4821669817213125 5.330794390471778 72 58 47
-0.5714721741186479 0.13033155958997655 5.559716323123231 183 173 148
-0.48268348487720375 0.5738115339630606 5.3578817865470665 72 46 47
-2.4004176296590116 1.0692295346849519 6.757620139558678 85 103 153
-0.2541840504891217 -1.2494489908439808 5.448731855976607 153 102 111
-2.4091629845362976 1.0718945495892689 6.767777569524219 137 148 202
-2.469837496770451 1.0801907699520332 6.823958079579615 147 144 197
-2.4692733321130302 1.0767481532638767 6.802596525195209 113 104 151
-0.6639018966698209 0.4885141982931893 5.343037737814063 118 109 110
-0.2938532041709644 -0.6897429928252901 5.3210895601351895 123 82 96
-0.8972132700022633 0.2823022895387224 5.660782745120699 83 37 47
-0.7341224727351057 0.43338547773541425 5.383662892285971 127 111 114
-0.7096674676094351 0.4280706246860759 5.360341345192484 169 160 155
-0.9135300003829941 -0.6383048412709883 5.69709248608961 97 57 68
-2.301639859950477 0.26071296912029146 6.828332919486748 56 48 71
-1.2057787120639252 0.2882739454477627 5.9949445337808855 64 31 42
-3.3307134671988226 -0.1318834743831782 7.448036958144017 124 133 174
-0.7661187713404416 0.8843892615465624 5.322120603869486 132 126 160
-3.3462407053516467 0.6296042060073909 7.32744112583388 45 68 109
-0.6989004147448298 0.5102329515952266 5.330080991680775 97 92 98
-0.5847702487364417 0.21071532999153716 5.514444262221894 193 178 149
-0.6209203793963856 0.3447323751075696 5.53359407661773 76 53 37
-2.976012614886094 0.3171509533207156 7.221137161709104 80 80 116
0.045740861812528955 -0.6514986943561716 5.13259469999944 113 68 75
-0.7833010224422955 0.12562876289104657 5.636297729776614 152 130 117
-1.1790530119727831 1.5192873165365264 4.071706675910207 176 201 255
-0.6917325673823882 0.425037626768302 5.354982915730505 162 153 148
-0.7840490114967154 0.1252548638466664 5.614513136441797 143 113 105
-0.7508459006936246 0.42566335463554833 5.382140556372795 116 90 91
-0.7632989867006255 0.8688652791838312 5.306869722580479 118 123 163
-0.9271234437420014 -0.6350134329735303 5.670679292984637 83 42 60
-0.7009942960132485 0.5084516273578465 5.2910025423895295 180 176 167
-0.687024523220704 0.516958412181865 5.380723261218977 76 69 76
1.5937657528615956 1.5826264058392074 4.29490960937231 53 50 131
-1.5316003457315486 0.9367873841726228 5.726810466994269 81 37 52
0.7148539152894788 -1.4146363577126757 5.348417255418175 118 100 124
-0.00363935146182107 0.3643264335195446 5.208544902727937 97 43 57
-0.6636027680061609 0.2489904867664106 5.479576543039496 220 215 186
-3.3579001970692706 1.1232068680172138 7.2749468498085905 40 45 83
1.0332077173827534 -0.48565962789064404 5.028295302226388 58 44 61
-3.41181447680243 0.7794158098415414 7.234391283204789 48 83 125
-0.6761964102855781 0.4230022966276898 5.338808315544023 117 108 103
1.555109395974007 1.4972143954689068 4.3304239715866535 132 151 207
1.5623157352326433 1.5013216306279922 4.341944289178629 147 173 234
0.04225487236746872 -0.6554761957103576 5.142267605076643 136 86 97
-3.350391004007436 0.9690307086936293 7.28164341409653 68 72 110
1.7212108482976862 1.4669182241882603 4.233676424255132 42 48 64
-0.3813021679249749 -1.3895660611101812 5.504628914307528 91 36 55
-3.357392261558133 1.1523761885705783 7.253499166444219 86 110 144
-3.0585356602457523 1.898202690229954 6.9291633606864655 40 46 68
-1.51327227262387 -0.9176385138383522 6.578849271767159 78 50 62
-1.952591295755197 0.972817369050639 5.9896744301492 60 37 47
-1.8936274939877773 0.9669905665997798 5.949732509250443 66 35 43
-0.8836385938815026 0.13477911742821178 5.684665535228907 66 26 34
-3.3284557265377415 -0.12301623437566966 7.448125489909322 54 55 99
-2.4957161378650805 -1.741639131897966 7.237410450933142 132 109 135
-2.670064414824073 0.25562127135121115 7.047053261527755 71 67 94
-3.004592007946623 1.5027049050509975 7.058317756588149 130 141 171
-0.5757682252486821 0.2578136266566147 5.472019897671977 174 159 140
1.054928451677496 -0.8287343213904611 5.077129420725076 72 49 69
-0.7072781313387062 0.43709138253201146 5.368304097833307 109 100 105
-0.70804291876711 0.1858770319964663 5.508752537678703 207 199 180
-0.7408449690517848 0.8590774046483108 5.284806281456942 65 62 105
-0.6911597815218322 0.42392700126168953 5.365246552740159 178 168 159
1.4726185811604853 0.6780159700560787 4.61556706718176 132 120 132
-0.4049802295720612 0.25196097459388417 5.394637013644007 67 24 33
-3.3333251523490572 0.630631973053722 7.322729482614725 32 44 84
-0.1266267756215632 -0.698304107499538 5.3725979781653646 49 23 32
-0.5643285173165136 0.25044646379996516 5.475842161062103 185 167 145
-0.5730620690068206 0.2507445957167413 5.484633770728683 119 91 77
-0.6389949842476224 0.24716066194114197 5.45400018749422 94 79 84
-0.33480394024014953 -1.2440228029367084 5.536500735819337 96 48 64
-2.5482729320202138 -0.24159916885874794 7.031439181325389 117 102 123
-0.984493081107821 -1.3777866961420762 5.837247623272642 89 50 69
-0.7399571732059762 0.8613079951905711 5.304264444884712 84 73 115
-1.17198406645271 1.5232656696347082 4.06685331870976 40 43 96
-3.341550085042655 1.111426906422175 7.247092683385421 107 116 159
-0.6644635738359331 0.5157147309915718 5.325584857495561 76 57 51
-0.5215795645694236 0.5219039231249338 5.347279831327639 104 85 81
-2.3664428455950643 1.0548423307354111 6.761157525725161 46 38 53
-3.0024525090385614 1.499558107774115 7.065889805300094 125 138 170
1.163058689880107 -0.1160825383715352 4.904282939161134 67 50 69
-1.1789318675962241 1.5245678036202404 4.070537814678202 145 147 206
-1.9593800871741627 0.9830753356237053 5.995573261199055 84 61 67
-0.6260500715170403 0.3689610141192373 5.536501263228551 104 75 57
-0.07850585372491778 0.8445634112952553 4.908520590918693 84 41 51
0.8749244751735408 1.0104742784547596 4.898902576167566 76 62 85
0.8920760395062939 1.0358480184322805 4.893562820853264 67 53 78
2.1198527342001876 1.2388650733793756 4.66499850223576 24 48 94
1.4611848968450911 0.6793342715406415 4.614270224069297 68 58 82
-2.654736406071594 0.26633012128774 7.039388850670226 106 103 130
-1.954847298333262 0.9798550803104554 5.969456655296048 105 74 80
-3.3351723160391784 0.988994308982895 7.269871060708804 40 42 81
-0.011201768731356119 0.8451725059222409 4.896581874609553 80 38 50
-2.3852491600740144 0.9388252627102411 6.766571985914565 34 48 109
-0.35125258675104404 0.869558964752807 5.08189913228109 79 40 58
-0.36834510405581666 0.25009101927353417 5.388459670559867 60 22 33
1.5339625126706842 1.5693247112334499 4.335484896233316 53 36 52
-0.5157976165174543 0.5111450096286517 5.331301942652422 140 123 113
-0.5773644176295794 0.5160359341621189 5.390437942053054 171 159 145
-0.6793067963688184 0.24459227131448413 5.4674497305645415 220 206 180
-0.6906182130338869 0.2444245160333463 5.465221425385979 158 140 118
-0.4479608112423354 -0.1412193589524376 5.467136009260183 58 18 26
-0.5790946553348458 0.12351234575751177 5.5603607428320165 200 188 162
-0.6793207185397157 0.25492361878120323 5.464628886716481 140 122 98
-0.7688019185399241 0.24704879314383668 5.616304940200839 131 105 90
-2.38101770094076 1.0486808724062249 6.768161454444344 35 39 86
-0.7696067292230031 0.24618926749870693 5.594668269456352 126 96 85
-0.6925906736941643 0.5158407687080836 5.310146654897362 174 167 157
-0.6915288722767464 0.517683907835918 5.329561712346769 162 158 149
-0.686723730166594 0.11785928642890142 5.54245805218249 173 165 144
-0.6815828527109384 0.516148786967641 5.312278727903496 121 116 113
-0.6817065896474327 -0.05137488909542804 5.579966876096234 149 132 112
-1.4111523739517093 1.687163960293637 4.499245819733916 200 210 255
-2.6498952936033584 0.2502763692792409 7.028886945354439 71 59 81
-0.311289809397906 -1.2331680554863027 5.525638385665609 97 47 59
0.4831077581474474 -0.8462090036862459 5.389066929356558 87 64 84
-1.7467631546378166 0.9751566475327084 5.8702920461120645 72 42 54
-1.4590181700867737 0.9531161161887679 5.699687443681776 80 38 48
0.8402498818417827 -1.1167527473480612 5.235565051983102 80 54 79
-0.7683253755191817 0.44717181477913814 5.443465308642976 154 138 125
-3.3468951508009543 0.9690773147964536 7.291410783371457 105 112 156
1.5498483390600992 1.4884714642656058 4.328036120353787 21 35 80
-0.6247015523512734 0.3712609951685254 5.557354072378054 134 110 84
-3.4673112669684802 1.738524787906493 7.16268557497324 93 117 141
-0.5818067066782223 0.3716811909572418 5.543352532187767 122 106 90
-0.44995230710638495 0.5946804008424015 5.365892826291547 57 25 36
1.6292937980443727 1.5152231510322085 4.28295647365678 25 38 116
-1.2720015085369145 1.5242383270766588 4.062820888492113 83 64 153
-0.35848092147242444 0.876166051919635 5.079427225976206 128 84 99
-0.3549014318651464 0.8754264686222122 5.079987176129092 110 69 83
-0.018291649139987962 0.8525631650964287 4.894998840073451 123 80 90
-0.5740137083008439 0.19723556129337855 5.509560252770116 193 179 153
-2.3901381479112005 1.0414341678235752 6.760085579168772 143 169 230
-1.5259103588005387 1.562269829287285 4.359079717937508 120 133 150
-1.971227290202297 0.9946693830883925 5.996845891715572 54 36 48
0.2264851892081559 -1.3986764332901087 5.630225104543141 84 66 90
-3.361082081003139 1.8853183260148512 7.124350139500103 109 91 103
0.44614854114628993 -0.845078218530239 5.415934976280368 71 50 67
-0.49715346524812937 -1.3091637055541223 5.634566784335578 92 44 56
0.4575118182372054 0.5845702391918477 4.859691789149933 57 31 44
-0.5654234441052128 0.247076057461215 5.486842638576263 168 145 127
-0.6209656408362544 0.3466571827163774 5.53313851558059 88 65 49
-0.7500301706928313 -0.46550595116531196 5.690944331648032 73 38 45
-0.5670059571867454 0.2462426499564497 5.4663798168128706 153 127 110
-0.7065002033683511 -0.059933107761807054 5.7393760393863404 159 144 125
-3.339256584968265 1.1791531004441422 7.2461580860931525 69 72 107
-3.3870025769940115 1.7477348342042365 7.19413187003463 60 56 79
-3.39465452221849 1.0040594041553443 7.337554129244269 64 69 98
-0.10750297969285336 0.43042162102221654 5.347326185418932 67 24 31
-1.8976750194278542 -0.5988217340823264 6.734469580242175 60 47 67
-0.5791018885113132 0.11872590072395253 5.5617006755244205 183 171 147
0.5685105210259241 -1.4960733286386407 5.438771053880053 77 53 77
-1.9773532931611573 -0.11807500754771277 6.6894222817604385 133 109 123
-0.534785996364666 0.5115802679122495 5.368142180216989 112 97 92
-0.5364420007305126 0.510651729636594 5.348254347538514 133 119 118
-0.0253554729372644 0.8591403956402995 4.893708960946338 92 44 58
-0.6679552563796022 0.25881671381767174 5.465734200880028 185 171 144
0.3201812914585124 0.8338039750915687 4.701481720510797 74 32 44
-2.3780157446906585 1.0371127510337355 6.754389875270823 81 95 144
-0.5085678220844752 0.549326988904388 5.321770856305954 198 188 179
1.5489658720525439 1.5533721393501636 4.327431820494663 36 23 41
-0.6681803208109406 0.4784763266327146 5.33505417585911 125 114 112
-0.31656832578940536 0.3293885272858396 5.341222792162389 80 33 39
-3.3614810488697517 1.1884670600958636 7.258231280809265 44 70 105
-3.3327041967110325 1.187913067710643 7.2598617695905965 77 77 113
1.6831023626205621 1.5714866158423288 4.248307526342692 45 76 143
0.28000647066429357 0.8366490824554055 4.7162194097547125 68 35 44
-3.337190505910525 1.1881244355134335 7.24648400593658 30 33 66
1.7392478064170371 1.5626099803085471 4.220561137733449 39 43 52
-0.7813156999434487 0.21046359787428948 5.601964845564697 152 124 112
-3.384317600171284 1.0028472602781713 7.327212667894898 91 104 136
-0.7059178571062884 0.44548657751926585 5.356320725663046 176 177 171
-0.4923662775157273 0.8961109502605125 5.153334981380647 86 54 69
0.8615476347245614 1.2093274015433746 4.875477586199528 130 122 146
-0.6168851694682375 0.21716650135130383 5.570008794998975 59 31 27
-2.037500118837062 -0.6620881608692434 6.802863212656877 58 37 54
-0.3465434286898967 -1.2267042819615717 5.531063485584895 111 65 75
-2.7061051302969283 0.24541067029340152 7.0744820553292325 81 60 79
-0.9332783343114152 0.28750034342902475 5.693668221830676 64 24 33
-1.533356700605771 1.564672884580348 4.361893563398992 129 132 151
-0.9329218487368468 0.6039078348353007 5.6701760049881385 63 20 30
1.0408035437419194 -0.8807234296221267 5.0794618796125715 112 94 106
1.0537126643012296 -0.8823326559104288 5.08325999055595 48 33 52
0.9669022641868297 0.15297016788215917 4.971735128957748 119 97 120
1.1585683737731702 -0.865171946526939 5.008537061164668 110 98 118
0.8794757100188165 1.0136371018182309 4.9055183580616495 90 85 107
-1.0280142677907371 0.29518179503199254 5.764732742087589 65 24 30
-1.5386282909265927 0.9805307725632059 5.760908561458358 58 34 47
-0.6702057910417196 -0.06394387130936596 5.585708211031673 70 40 38
-0.3141927533255326 0.636856432134874 5.296838978591027 80 29 38
-0.7214426020844896 0.5014707130080894 5.3178475535703384 83 80 91
1.5485835306626956 1.4584941131019267 4.33958326609871 41 25 36
-0.05531133231902427 -0.1553691892526489 5.397523066449582 63 26 33
-0.6034475346226282 0.2689512485034291 5.5578140568950625 138 117 100
0.17266106518839894 -1.0249322260038232 5.595665840260545 81 65 91
-2.451572283454432 -0.6285395771909037 7.025430916776407 71 47 61
0.27431717448414983 -1.3059266363612658 5.579271067791706 54 42 64
1.5686237544772186 1.4717828881134085 4.32632252021282 132 166 229
-0.4762048575301861 0.582036678408454 5.346507388664304 121 103 103
1.4953509157028866 -1.1016238207192126 4.863099105579454 68 50 74
-0.5797957932305429 0.11564392517775135 5.551945782474054 151 139 123
1.116520525437544 0.7470930178552599 4.772357689861481 77 120 215
2.1138912687606783 -1.2431303721693387 5.0636301463062985 149 174 215
1.580993609273538 1.591919834610902 4.303989163944905 109 130 175
1.5868241873627638 1.5934379560877838 4.307754804470689 139 146 201
1.1491948369354923 -0.12853827931008105 4.91537722761418 82 67 88
-0.7006322851140084 0.10803730401099404 5.531899232433234 203 192 170
1.682338431869501 1.4571271014716762 4.268659838582377 143 173 233
1.6948686461012983 1.4533713677303097 4.256724611678612 108 118 179
-0.5637511968109834 0.24503765670015706 5.5081781103567184 113 85 71
-0.7745592361146612 0.10502065385321621 5.6225023999688295 139 113 100
0.9672617673667023 1.1752396688888729 4.827820673963902 120 120 144
-2.8960891996509472 1.4795718269691265 7.00690939110888 47 39 63
-2.479888964305767 0.8859261824050343 6.828486075285332 48 40 64
-3.353097438948266 -1.0021385516834957 7.568668562117243 50 57 86
1.6997729704849192 1.4732602567262543 4.244556976059709 100 105 186
0.7317727855668185 -1.4250952908827053 5.336640758326134 152 131 150
-2.227168636264768 -1.655831025580242 7.076416046029495 65 51 76
-1.170911979149882 0.2843690788419668 5.972056431254071 69 29 38
1.1207563781214456 0.7484315458291678 4.769627656213101 83 119 213
2.111518605474524 1.244382097164078 4.660754497712356 97 134 176
-2.393047547465545 1.025387964285483 6.763369311753309 27 45 111
0.27233532859028087 -1.299983229137728 5.578345075970673 62 43 65
-1.8914890945428005 -1.382250774793184 6.843640664233858 130 113 131
-0.27519516825896084 0.5514748047137198 5.283199360025693 69 22 32
-0.27544128337477675 0.2417605275762238 5.328351675009065 66 25 33
1.5752783983324625 1.5949711479047002 4.30838709520892 23 37 63
-1.414598094882823 -0.5654145026777637 5.965622156686664 144 90 104
-1.4220938330861703 -0.5649947093022393 5.9616471192844775 76 22 38
-0.7179739272370067 0.20245621506424566 5.491697147544579 169 152 134
-0.6679096954620951 0.2644115485894354 5.4641346957557735 173 157 132
-3.3661877272153666 1.2185694728896985 7.264930306898742 89 111 148
-0.46476323347447196 0.556820638016433 5.354739365807121 154 137 127
-3.35487294526302 1.2163584144428032 7.2582365535663085 34 53 95
-0.576925675187913 0.2657548112947835 5.479883003091191 129 110 93
0.8877141465126845 -0.46493339341352796 5.122578181530396 72 55 74
-0.5693116725511264 0.18142497303906083 5.524998684399297 192 178 151
-0.769405649629664 0.45577235668611255 5.409893062066581 109 72 79
0.014593021266154135 0.5547793518407037 5.250374819177616 72 29 39
-0.5442850953661434 -1.364744683560798 5.723762107433315 80 23 38
-0.506796700410233 0.5431654926103725 5.34355452248846 203 196 190
1.1219090613725724 0.722025819411406 4.786161622225445 77 116 211
-0.2516932360308191 -1.2558942374357291 5.441126227600381 150 88 101
-0.6632892737455849 0.5266406171831752 5.342618552560444 129 118 100
-0.023588054301143 0.19898587923027458 5.329710529319954 72 30 40
-2.401480340676047 0.8888232942489478 6.790577113036096 40 44 82
-0.36804564509099597 -0.6642148412667922 5.355312831776565 74 30 45
-0.3017712209866375 -0.6566685187234195 5.312056566612875 83 39 52
-0.7394400764384913 0.4728984248756057 5.331693242063775 160 152 149
1.6917468670538065 1.4535741942981821 4.259741002276404 122 143 206
-3.381425352904276 0.8005871649433024 7.354817647355455 53 56 87
0.8791760117225669 -0.4579381395381293 5.114618686601128 120 109 126
0.9608645029374006 -0.5401110683566076 5.075776659871896 58 40 56
-0.5773969863489476 0.1886037694377753 5.542563977494673 154 133 116
0.9399772461499033 0.7185227538849212 4.916389405800934 137 126 143
-0.6421408001170027 0.2643930657815517 5.458871642590175 104 87 69
-0.6116412709842451 0.10448651280736188 5.591844931514359 131 112 97
1.6311462082253132 1.5174530089266374 4.280318423016578 54 80 155
2.120638001531276 -1.2319318808139408 5.064021378854289 174 191 234
-0.6838496086508579 0.21609545202424318 5.4949564058780656 184 176 157
-0.6227018808062325 0.2199799244763498 5.568217407687694 38 18 17
-1.9879871095162283 0.07631293393711441 6.680625821927524 63 51 75
-0.9890786193754004 0.29288858703973547 5.731829598962961 61 21 32
-0.9836058544632074 0.6891007086556745 5.675260893968416 81 30 39
-0.9357176010379261 0.6873649015804452 5.656493143429322 78 32 43
-2.9112876204908162 1.621149662582526 6.989566807029688 55 46 63
-2.376716799739364 1.0097839137368578 6.768083283688285 46 44 83
-0.7028562031521026 0.1988774611193447 5.495879486370822 214 208 194
1.11077662137213 0.7839767577043193 4.7647241793562465 66 108 208
-2.50680651309261 -1.5350128571300299 7.227251271518581 70 47 67
0.16484630101447661 0.20855645663600653 5.216742082302872 66 31 38
0.8691602265149201 1.0267462552718922 4.906272757814671 91 86 109
1.4815955641336827 0.1528273224394771 4.685015412754579 123 111 131
-0.3182446570366964 0.05472612675513638 5.357115629192191 66 27 32
1.7096356042181997 1.481913709283273 4.25111561373748 139 154 213
-0.7141282780532092 0.17907046916282776 5.5406871559213755 171 162 147
1.1788099709124915 -0.6888623049711745 4.985140184614506 70 52 74
-2.476086972468997 0.9006566331380392 6.850135222199513 74 63 106
-2.010634677675536 0.0706071120379978 6.699825399608499 99 87 109
-0.36291333450409596 0.6420286986255922 5.321506102446295 73 23 32
-0.6373019181697106 0.4599055228209941 5.365695282086128 146 132 132
-0.7026660615168258 0.4729649641277303 5.339517553415001 132 123 126
-0.5012154050307039 0.5594609917400495 5.3200551533672655 73 47 50
-0.7803994939122207 0.4784252327704961 5.400954545423809 142 125 118
-3.0349660614828142 1.689655700838164 7.046772708431463 105 123 161
-1.590343612275923 -0.6864579555807432 6.549659989444104 72 46 59
-0.6318144170023267 0.35655062592592146 5.538967735155013 107 85 62
-0.4965856605760231 0.5614314974532457 5.329854874856422 93 67 68
-0.4807511895121706 0.5618780764809876 5.341635258853934 131 113 109
-0.41585929683822953 0.10241951763003865 5.424307942297917 69 27 37
-2.4145363413149714 0.28066457526217076 6.904859008491624 73 52 69
1.6959573763696556 1.572722863278845 4.234037366421525 129 125 186
0.826527940026283 -0.6707164974229077 5.174538308653181 93 62 77
-0.3811982262462689 0.057328356266360424 5.3905650587764375 68 28 36
-0.7890916491914826 0.19109644915318053 5.605538661455155 139 106 99
1.014204102593433 0.5470040231378837 4.883712254795442 82 73 100
0.2818119331399814 -1.291998677411318 5.584246176717058 118 109 128
-3.1768592901723323 1.879294217544412 6.778748772536389 104 122 136
-3.187662248326486 1.8710400943201224 6.754754432077473 123 123 131
-0.6324801750554927 0.35212712980325955 5.529534415340289 126 104 80
-2.4681273844648306 0.8973533905890833 6.815481890865423 42 35 79
-0.6547353962723081 0.26651971247896494 5.466150545347801 174 158 133
-2.883207452549811 1.8204267310457287 6.869007649844103 86 78 101
-2.4651425014975814 0.9018956246881545 6.840637571710128 135 135 195
-2.4098927221599595 0.8969607091142247 6.799073652433542 135 155 216
0.8533884016555504 0.9313968348393054 4.911868517732465 61 44 60
1.539676874859562 1.4849284151162148 4.348468389737298 50 38 52
-0.6748683381893077 -0.29223112704166454 5.637513477256413 107 70 77
-2.631022508956801 -0.7877527081162052 7.235509720328856 78 54 70
-0.514883357845046 0.5020655167740612 5.343784545516753 192 185 175
-0.6791017991104554 0.09112920539988106 5.551404053142125 203 195 176
-0.5411890479047275 0.503245604146994 5.359552407078008 167 160 152
-1.3546149609420204 0.3182793347932364 6.076126306847777 65 25 34
1.5622473126683933 1.4641191837584449 4.324880272173296 35 36 64
-0.4765296633182932 -0.6706572989260174 5.411466792975314 79 37 49
1.5836650368373815 1.4734128270801463 4.31160717780977 46 39 117
1.6349549710878402 1.5285155267044221 4.282815340584972 48 40 117
-0.6388340660195804 0.05955051165243654 5.536567909599961 177 162 141
-0.6613704037391486 0.47145104117674796 5.328360098637505 200 191 182
1.279219035003717 0.25002929039004773 4.776229436830203 46 33 53
-0.7312324997860516 0.05951418684243178 5.623636457639459 146 127 110
-3.343271193549296 1.7097870173789886 7.18481360309831 31 28 59
-2.944244421170018 -1.2088307976943038 7.399449769098517 123 135 175
-3.3293367938836553 -0.8330875321238146 7.52271895363723 53 75 122
-0.4908154233747963 0.5388711861317991 5.336649523582623 123 112 118
-2.9348978433319743 -1.7303335056587286 7.476844559375238 90 97 139
-0.7870356652395212 0.14401158139681275 5.630177049863555 154 132 121
0.6010895947699371 -1.058849593771465 5.37009002886352 119 104 127
-0.31235758085460485 0.5546929063686802 5.309503119625637 64 17 27
-0.49647701391844473 0.5495644991258738 5.313570850707291 205 201 190
-0.6270070621006212 0.2692889732329818 5.460241412398993 174 159 136
-2.2308214779853937 -1.5437147506126518 7.049872826654567 82 58 80
1.5606495239215017 1.4961120718940102 4.345268662781505 65 97 158
-0.7634701838098289 0.0865485667887616 5.619502318320797 145 117 106
-0.6971069852304763 0.49308262203734093 5.335185987821337 71 63 50
-2.952087261481471 -1.2021089876349065 7.41108859467209 87 105 151
-0.6976667343751728 0.4686420475520183 5.331839768801904 131 120 118
-0.1389576361562259 0.9290161894064893 4.939262487516723 72 36 48
0.975830723829265 0.18634839228704533 4.976954679480278 61 42 61
-2.948795730752565 -1.200436055875781 7.41580379483633 70 77 119
0.6003752666022143 -1.0655020379750793 5.3624240531407095 68 45 71
0.2039919245374462 0.9038106619843015 4.751330329661614 81 37 50
0.45466484773378474 0.8850041124361466 4.619021019632396 83 39 52
-0.5804551017270884 0.3321783851995758 5.597208979598462 89 70 55
-0.36486189498727406 0.33177530196620186 5.3567922892644 81 31 42
-3.311400415291201 -0.8244717530656033 7.52453087417493 89 90 138
-0.7592605184858312 0.08282912862897335 5.632352068940449 140 118 104
-2.478521689297502 1.0049603847964066 6.918906156208982 30 52 109
-2.4547082879630726 0.9898356260159477 6.81464704621222 48 48 100
-0.6110826107841025 -0.2968420311080263 5.587837877162188 101 64 71
-3.0655132904895086 1.8860453402765605 6.815277040526119 165 187 226
-0.7481370378025244 0.0701710068090041 5.627645643204786 142 114 100
-0.9886281540254271 0.608229317798841 5.697493934051234 64 18 31
-3.3281480114023014 -0.822437724935604 7.518922589719448 103 118 159
-1.6370288789887917 1.0582126793045794 5.779923553033042 83 47 57
-0.14460593515834727 0.9363328311881124 4.9461480240046045 113 70 79
1.2631542048148658 -1.0900822967003858 4.978615415419943 102 77 99
0.8788856572845152 1.025013213697904 4.931286098736085 122 121 139
0.9733960880113128 0.12882798150646552 4.9850344168224705 131 107 121
-2.3734799272826024 0.9795923628438556 6.762942883646155 45 48 89
-0.6675861149442691 0.46748161740481203 5.347994699594772 136 132 131
1.6348397361459672 1.5219016345180467 4.2750418879258865 145 169 231
-0.6554369887892331 0.26931725981553606 5.485856925861284 157 141 116
-0.6232276788863265 0.27121914751085263 5.460382990210378 180 168 144
0.19253637818078342 0.9189224038892276 4.765386688276712 90 43 59
0.16287192674119355 0.9207271777029373 4.777109820541091 85 44 50
0.1593523687269353 0.9184968311980263 4.770127960904914 72 36 40
1.6417494885070052 1.5329289786661584 4.314906874497925 147 160 228
-0.5798492897012767 0.22557578737488032 5.500803668275122 183 172 150
-2.439112485639101 0.9787051705140799 6.793871645048241 158 169 223
1.6975575220504635 1.577013784621384 4.231004369586631 42 31 65
-3.012181020373955 1.7682439194128006 7.015045405462346 134 158 192
-0.649560678028801 -1.6262544645238641 6.148375659090149 80 55 77
0.49175735768992973 -1.2357524201210475 5.444067350965293 81 57 81
0.8734630616999028 1.220353170358806 4.876947344501133 89 75 108
-0.5057741672298603 0.5403916845202286 5.334452703187128 186 178 175
0.12332728774223434 0.3874218950296106 5.210664970904309 79 30 36
1.1134976018389862 0.7605317596175111 4.760729311255608 73 117 212
1.715160801969771 1.4398647170121521 4.24963825364149 51 40 56
-0.7761741098652206 0.22318673725101407 5.577968651789506 110 80 70
1.2790681935211115 0.2516589225848556 4.775884132745368 51 39 63
-0.15059478198674153 0.9460397990843072 4.960968584533394 73 35 48
-0.1831536822646414 0.9495299483544063 4.986421095884077 79 42 50
2.090976817556761 1.1634549146713884 4.68352612581999 66 75 114
2.1086471491923233 -1.089084980714323 5.062664564475777 64 88 116
1.2629975223877061 0.2532325821648336 4.794817341848314 68 49 68
-0.1450695434194835 0.945344069931158 4.952317438633919 70 37 46
-1.539278028458482 -1.2919615392416182 6.640640620208797 67 46 61
-0.4140748732426706 1.2237205034291596 4.113022493455911 75 44 62
-0.5546910074987469 0.2241959172340982 5.484539693188989 91 65 52
0.8604464207889055 1.0389013819901058 4.9064481711095835 123 121 142
0.37056882730443497 -1.128693227877835 5.497195464448494 87 65 86
0.3836335806394473 -1.127234165384305 5.494512222748999 132 113 132
-1.6729055171350946 0.951398532462267 5.832270079471384 88 52 66
-1.5364854696368464 -1.2855863855908771 6.6097487656791944 61 43 55
0.4518175033577176 0.8951016753461101 4.625045988034182 113 66 72
-0.613866687946313 0.5179092969353369 5.34398644998078 162 154 143
-2.8253090104309457 -0.22222951815826553 7.220110235361542 90 67 85
-0.27665447022132794 0.9525675835372444 5.018903098536198 89 45 60
0.018283110654957187 0.3626550844142748 5.179932079893192 114 59 78
0.8572124594834223 0.7790509513547678 4.925526311296902 74 64 91
0.8650867193131361 1.015915754399034 4.89207257770399 107 98 119
0.6207679608238196 -0.44689847037121083 5.264905733168718 72 59 77
-0.5407166814700392 -0.4810277023328308 5.577418302990693 74 34 42
0.3782969207499935 -1.1334231695675685 5.497182065591069 102 85 104
-0.4893014143120394 0.9711475468822883 5.152258722484716 90 49 65
0.5661034824082245 -0.6606462747100467 5.31896663771688 96 78 102
-1.3423455088644551 0.3076386863621269 6.072002736119331 116 69 77
-0.20816476172794898 -1.5339315589212998 5.881300503974203 136 119 138
-1.8937292128155145 -1.2638537739586653 6.817851879323381 62 45 61
0.006690904744720085 0.3858241042596571 5.20218757325803 95 49 62
-0.6643904329208208 0.0777242476264608 5.547549445223025 188 177 159
-0.7014287978871587 0.22210829916510566 5.479419719216825 209 196 177
-1.887815481946431 -1.2610156640301244 6.838488648846448 113 100 117
-1.4982236776597204 -0.9107496862772391 6.5547141976180265 132 101 116
-1.6760287914838248 0.9564349273983931 5.85661156354531 70 42 57
1.0512255703962274 -0.30946491754539535 5.007399122322538 67 43 57
0.8854829504950237 -0.3051807265785948 5.088351613108419 124 121 140
-0.7222232835218945 0.19485829386354309 5.524095756071694 206 196 171
-1.3420278917091968 0.3099418033490825 6.098767607202039 91 51 59
0.2869094265035982 -1.394701933916044 5.59166819338197 64 49 70
0.9360004251495473 0.7473488707436532 4.881714762434785 89 62 71
-0.13646302258825652 0.3081354368451288 5.37123123456054 85 39 49
0.4864280088318224 -1.402908592302976 5.489749216312017 75 58 90
-1.4762187103745255 -1.1963166500623188 6.568939126211329 75 58 76
0.8482503613083816 -0.6974167930216637 5.173905096231881 62 40 52
-0.029678704437194146 0.21308967181794675 5.335842570486267 101 58 65
1.0057295907381312 -1.263782099528622 5.163822949170223 78 58 83
-0.5550202000366088 0.16946594748360191 5.540932290260796 191 184 155
0.7711558338670266 -1.0450194418378558 5.249688384038472 84 70 95
2.103207591405823 1.2812608032130541 4.656979968939935 122 150 189
-0.576164843228911 0.1701932042320274 5.53741615176119 159 138 117
-3.3874774752780152 1.8877531491538173 6.940401460829292 89 93 102
-0.647145315253706 0.06825134918780315 5.5534452739083 146 129 111
-0.6503114379404309 0.07477305674812607 5.5302380222870635 183 170 151
-0.13368833837057345 -1.4317188299917691 5.823167755686361 77 54 80
1.6067005990518883 1.2967195372647784 4.438805579033028 75 51 65
0.6917340243188312 -1.4232918796343155 5.3669210322896745 122 103 125
-0.740282603673158 -0.022603060330012643 5.666391690265478 81 59 45
0.16474613456127538 0.21036164029441967 5.216306141287577 58 31 38
-0.6155371936126423 -0.3950588088537603 5.603560734458411 80 35 42
1.0477830445597598 -0.30515814465127794 5.007783700556423 95 74 93
-1.327893959840261 -0.1436797190358694 5.994756511468656 98 72 83
-0.556634932119322 0.15847436500514514 5.522980226058166 164 149 126
0.2758323228452422 -1.2830811690453188 5.582944323967881 82 67 90
-0.7327292322420582 0.16949083102801973 5.508001944281099 157 136 119
0.9010491833433348 1.1799847022365424 4.8667432400297965 129 127 148
1.486375021953256 -0.3345140667795009 4.7442779982383305 63 46 64
-0.48381942926178484 0.9610928168270904 5.136883160219438 117 76 90
-2.5394514770504832 -0.4200934128098757 7.098237607200346 62 46 72
0.10775927204038671 0.4342450460775571 5.227825705709578 74 33 39
-0.11906040650609764 0.4413397054572718 5.344624523090264 109 62 68
